ply
format ascii 1.0
comment Created by CloudCompare v2.11.1 (Anoia)
comment Created 12/5/23 11:10 AM
obj_info Generated by CloudCompare!
element vertex 1268
property float x
property float y
property float z
property uchar red
property uchar green
property uchar blue
end_header
-0.180993 -0.252195 1.6243 154 162 181 
0.326936 0.347116 1.39914 11 11 11 
0.54086 0.0240717 1.24752 62 56 42 
0.0701297 0.0744705 2.08099 91 110 150 
-0.289575 0.164809 0.969836 13 20 28 
0.190204 -0.100987 1.5301 83 90 56 
0.217693 0.0203757 1.12933 47 45 4 
0.141118 0.000869835 1.28164 60 46 11 
-0.0247453 -0.0292749 1.08878 49 5 2 
-0.511772 -0.0287468 1.31721 72 51 4 
-0.190319 0.461718 1.07347 28 19 4 
-0.613188 0.235472 1.61449 16 17 12 
0.0107141 -0.260333 1.93856 50 34 18 
-0.36582 -0.159756 1.47478 75 54 0 
-0.158778 0.137079 0.927141 73 53 16 
0.0228112 -0.018878 1.32949 76 70 56 
-0.0175011 0.481777 1.01603 5 6 1 
0.452362 -0.0529577 1.44388 63 46 0 
-0.323442 -0.206176 1.5218 121 87 0 
-0.215424 0.143999 0.88357 78 58 8 
-0.652333 0.255388 1.74283 73 83 85 
-0.213075 -0.213919 1.81106 35 32 23 
0.443235 -0.0250269 1.37926 86 66 7 
-0.310588 -0.172407 1.69289 45 37 14 
-0.528195 0.311555 1.43342 125 139 165 
0.343966 -0.126963 1.62715 109 115 139 
-0.563447 0.269563 1.53268 13 15 4 
-0.268509 -0.0863185 1.48015 87 67 6 
0.109769 0.150486 0.892057 72 54 18 
0.0639562 0.0927821 1.04889 28 19 4 
0.139224 0.0700597 2.09746 94 110 144 
0.598795 -0.0470576 1.42872 68 55 2 
0.154278 -0.221009 1.85476 63 49 4 
-0.0658865 -0.0374615 1.37411 76 66 57 
-0.291993 -0.187027 1.48291 107 70 0 
-0.510886 0.303482 1.44431 111 126 159 
-0.411627 0.449653 1.22503 23 24 16 
0.022726 0.182717 0.819836 56 46 11 
0.17101 4.02246e-05 1.12474 95 77 15 
-0.583893 0.245068 1.54937 15 16 10 
0.214981 -0.112577 1.58262 68 45 1 
-0.287736 0.465903 1.0642 17 13 2 
0.39237 0.360303 1.33058 12 8 7 
-0.226395 -0.061667 1.42735 90 71 13 
0.299134 -0.0114377 1.17073 125 148 5 
-0.278169 -0.0946241 1.49942 49 28 1 
-0.35444 -0.192433 1.45765 87 65 18 
0.170049 -0.0584497 1.18559 29 21 0 
-0.496243 -0.089184 1.48651 41 29 7 
-0.509576 -0.0751974 1.45 42 30 4 
-0.448037 -0.0193115 1.29493 80 62 26 
-0.255877 0.0512137 1.13113 75 59 23 
-0.178653 -0.250105 1.58192 211 183 146 
0.440312 0.0324851 1.21334 76 56 6 
0.664941 -0.0158871 1.32732 59 47 7 
-0.258142 -0.137567 1.5277 134 99 0 
-0.362216 -0.102426 1.5052 5 2 0 
-0.14065 -0.260551 1.10454 106 85 56 
-0.208103 0.165808 0.857696 10 6 3 
-0.200378 -0.141999 1.13881 117 104 69 
0.186028 0.0654838 1.10784 96 78 14 
0.568976 -0.0415461 1.3174 10 4 0 
-0.083397 -0.10316 1.16403 135 104 101 
-0.113315 -0.0335323 1.19702 125 93 98 
0.0609469 -0.0496651 1.4032 250 250 250 
0.0116448 0.0416833 2.1309 97 116 156 
-0.175052 0.0690564 1.0865 31 19 5 
-0.275132 0.105228 1.00151 38 31 13 
-0.284927 -0.118576 1.55867 74 56 10 
0.45135 -0.0663938 1.4586 86 67 11 
0.316202 0.0839783 1.08384 47 30 4 
-0.515038 -0.121631 1.55994 47 39 20 
0.00458878 -0.064095 1.0588 72 49 7 
-0.107807 -0.0188428 1.19362 56 35 14 
-0.675892 0.21824 1.65935 12 13 17 
0.0794488 0.422904 1.18975 1 3 2 
0.0304889 -0.0930843 1.50998 75 60 21 
0.535052 -0.0433052 1.42638 74 82 93 
0.303423 -0.0366113 1.17454 136 160 14 
0.212508 -0.0215737 1.11464 158 180 19 
-0.483259 -0.147149 1.63531 32 23 6 
0.235768 -0.154154 1.69262 75 57 9 
0.341185 0.0588713 1.13204 78 56 7 
0.672291 0.023067 1.28717 4 4 6 
-0.288675 -0.211478 1.51364 203 164 69 
0.0620572 0.041205 1.17495 97 79 13 
-0.18237 -0.0150029 1.21795 70 61 18 
0.00150697 0.485204 1.02301 8 9 3 
-0.0329155 -0.00236883 1.17395 106 72 24 
-0.0454242 -0.0381763 1.36857 67 47 10 
0.36283 0.391188 1.28593 6 4 5 
0.410523 0.285076 1.56969 39 38 43 
-0.232627 -0.204962 1.75257 214 228 254 
0.297345 -0.148525 1.47636 58 114 89 
-0.027683 -0.178082 1.10003 141 135 145 
-0.239733 0.420262 1.17454 9 9 9 
0.192852 -0.0212701 1.12797 139 158 4 
-0.217101 -0.203948 1.64212 121 118 145 
0.259153 -0.18436 1.41575 40 60 0 
0.12829 0.107328 1.02135 38 27 5 
0.0662995 0.372422 1.3002 81 73 37 
-0.445936 -0.165176 1.70159 4 4 0 
0.102234 -0.0690998 1.46312 76 58 18 
-0.277887 -0.172861 1.70559 62 48 11 
-0.0593209 -0.111351 1.56156 95 75 16 
-0.1086 -0.256849 1.92495 42 36 14 
0.0580542 -0.0514964 1.41508 89 70 4 
0.0220101 0.0231337 1.21969 79 74 80 
0.0101373 -0.00202451 1.13714 132 115 43 
-0.0678702 -0.166915 1.6922 192 206 245 
-0.0283387 -0.238347 1.89649 57 43 6 
-0.0426226 -0.102526 1.53714 84 63 6 
0.612021 -0.0430396 1.4156 64 52 14 
-0.213333 -0.0252481 1.3429 59 55 10 
-0.55127 -0.0249356 1.32108 53 39 2 
-0.611475 0.353681 1.45705 25 28 19 
-0.313924 -0.0468456 1.37623 76 53 1 
-0.37323 0.349941 1.3306 44 52 63 
-0.10208 -0.254757 1.89332 208 228 237 
-0.419514 -0.17019 1.70374 22 20 21 
-0.108885 0.156417 0.861476 72 50 3 
0.280038 -0.0516157 1.22553 106 122 0 
-0.162534 -0.184685 1.72809 70 72 84 
-0.480113 -0.0947399 1.48894 42 31 11 
0.182457 0.130183 0.952282 41 30 10 
-0.0248619 -0.207861 1.09372 120 50 48 
-0.629719 0.278917 1.5096 128 148 175 
-0.0124819 -0.0120901 1.29801 92 77 12 
0.0341873 -0.210629 1.81811 61 44 0 
-0.722736 0.057265 1.5135 2 1 6 
0.484477 -0.0154941 1.35429 91 70 17 
-0.0102666 0.0793133 1.09006 58 40 2 
0.348986 -0.113494 1.57495 86 66 7 
0.274725 -0.13015 1.50122 76 65 11 
-0.5293 0.256741 1.57242 84 100 116 
-0.135406 -0.101448 1.52377 81 66 37 
-0.200247 -0.138725 1.1293 93 79 50 
0.00200698 0.0545824 2.1208 103 122 162 
0.585957 0.0228365 1.26147 79 58 15 
0.403053 0.324809 1.43766 20 18 19 
-0.2034 -0.0910587 1.14854 251 253 250 
-0.657632 -0.122916 1.54596 82 78 67 
-0.0576088 -0.017451 1.30842 75 53 4 
0.365977 0.0819817 1.09821 38 26 2 
-0.66709 -0.113716 1.53016 52 47 25 
0.0171087 -0.171597 1.09019 145 144 152 
-0.323279 -0.207911 1.53893 160 155 35 
-0.0256029 0.0224177 1.22098 78 76 79 
0.479321 0.0141105 1.27182 82 86 97 
0.480429 0.00189408 1.3115 80 62 12 
-0.202502 -0.261138 1.6043 162 169 187 
-0.115843 0.0105358 1.23673 51 32 2 
0.246798 0.00113795 1.10465 55 52 1 
-0.750085 0.255046 1.70009 81 85 94 
-0.314759 -0.20681 1.76281 61 60 65 
-0.375354 -0.175579 1.44854 174 147 6 
-0.610899 -0.0966742 1.49662 149 173 207 
-0.342676 -0.180383 1.50157 207 159 31 
-0.0140256 -0.0150579 1.08611 45 29 4 
0.287963 -0.112747 1.57569 64 50 11 
0.10173 0.0100168 1.25514 71 63 1 
-0.164718 0.481806 1.02609 8 9 3 
0.218627 -0.11376 1.46151 72 140 99 
-0.4053 0.0614366 1.0955 69 50 10 
-0.458932 0.307295 1.45404 88 100 124 
0.239562 -0.0974125 1.43207 26 48 1 
-0.222624 0.0638667 1.09909 71 52 9 
0.49379 0.25571 1.62021 41 40 38 
-0.17945 0.446423 1.09916 4 3 1 
-0.175117 0.00696688 1.24333 76 56 3 
-0.160899 -0.156953 1.16465 216 220 229 
0.117544 0.392675 1.26692 78 64 35 
0.1578 -0.269084 1.99192 50 50 60 
0.0729344 0.150723 0.867217 104 89 60 
0.165793 0.0807353 1.08502 40 29 9 
-0.219937 -0.030526 1.34443 100 107 125 
-0.221255 -0.117031 1.57397 68 58 49 
-0.151494 -0.0636489 1.44047 129 139 164 
-0.505808 -0.0950744 1.489 41 35 9 
0.46645 -0.0253822 1.36257 48 39 10 
-0.183906 0.0800583 1.05799 42 27 6 
-0.20025 -0.0924236 1.13737 82 70 10 
0.0784553 -0.262069 1.94225 109 116 135 
-0.0939173 -0.131959 1.618 68 50 12 
0.364723 0.0294478 1.21717 61 37 0 
0.0374827 0.0378068 1.18457 51 32 2 
-0.32288 -0.0224153 1.31303 70 51 19 
-0.452736 0.30275 1.4582 107 122 145 
0.474518 0.041875 1.19609 50 41 8 
0.166432 0.0638086 1.13038 56 46 10 
-0.550924 -0.00444396 1.28132 211 226 247 
0.148005 -0.173882 1.71171 190 203 247 
-0.262025 -0.179982 1.7156 45 42 35 
-0.149206 -0.00386835 1.23347 144 130 129 
-0.0553989 -0.0636061 1.0772 41 21 0 
-0.276279 0.449006 1.09967 15 15 15 
0.0676179 0.015527 2.16978 10 11 6 
-0.234085 0.0403909 1.15739 69 50 8 
0.186535 -0.202901 1.80712 61 47 2 
-0.60183 -0.0729601 1.4337 71 57 20 
-0.0184374 -0.0903647 1.49954 77 60 17 
-0.0301119 -0.0934737 1.13613 169 169 177 
-0.270972 0.435878 1.13308 10 7 0 
-0.182788 -0.0428601 1.21219 75 48 41 
0.586211 -0.0375959 1.42007 77 83 97 
-0.0905652 0.0632746 1.11263 25 16 7 
-0.501334 0.238468 1.60277 88 101 118 
0.252162 0.0564342 1.14386 15 10 4 
-0.632952 0.26053 1.71214 46 60 69 
0.153551 -0.106791 1.55518 69 50 8 
0.141821 0.116301 0.985421 77 58 18 
0.311253 -0.168614 1.45109 1 35 18 
0.0440813 0.0091844 1.26115 62 42 9 
-0.144388 0.0896489 2.01119 17 21 4 
0.368557 -0.101173 1.54984 50 31 1 
-0.0944237 -0.00480483 1.28341 61 45 9 
0.090684 -0.275464 1.99052 64 56 45 
-0.22915 0.133119 0.905727 78 57 14 
0.0907467 0.0849257 1.06839 73 51 2 
0.207622 0.00430355 1.27944 88 72 12 
-0.198935 0.0128866 1.1808 107 97 87 
-0.394206 -0.0936033 1.48985 32 24 3 
0.0222551 0.133773 0.941769 72 52 15 
-0.0175179 0.0359814 1.1053 50 35 4 
-0.712048 0.254145 1.71278 42 58 55 
-0.190258 0.0153919 1.17435 49 23 0 
0.0384129 0.0562409 1.13796 80 62 12 
-0.0945157 -0.13184 1.14327 207 209 232 
0.205923 0.0965427 1.03307 96 78 16 
0.163499 0.444746 1.15037 2 2 2 
-0.0678258 -0.0986108 1.51703 70 51 8 
0.443276 -0.121434 1.60795 49 34 1 
0.134276 0.362262 1.32535 92 81 51 
-0.364915 -0.169341 1.50517 133 130 27 
-0.448211 -0.127207 1.58414 40 29 9 
0.00767395 -0.26439 1.93105 170 189 245 
-0.119148 0.441575 1.08475 3 3 3 
-0.554577 0.260994 1.56436 94 109 128 
-0.437544 -0.0992498 1.49432 70 65 59 
0.0425202 0.388616 1.26463 79 68 38 
-0.476132 0.335154 1.37007 88 101 120 
0.679193 -0.00460861 1.31867 49 34 1 
0.032308 -0.269743 1.95968 66 61 58 
-0.47039 -0.111242 1.53989 41 29 3 
0.0913267 0.107614 1.9864 92 112 149 
0.166021 -0.215841 1.83477 51 42 3 
0.140457 0.0659369 2.10596 92 107 138 
0.0180592 0.129895 0.953578 29 21 2 
-0.204125 0.440045 1.11747 4 4 4 
0.605624 0.0213111 1.25108 58 39 0 
0.413876 0.027806 1.22722 97 101 112 
-0.278522 -0.0989609 1.50334 47 20 0 
-0.331967 -0.129806 1.59641 77 61 25 
0.249656 -0.216221 1.84307 137 158 201 
0.0434576 0.0449414 1.17114 60 42 2 
0.271681 0.124837 1.01177 11 8 1 
-0.0981105 -0.184728 1.13362 236 229 255 
0.318895 -0.0521757 1.41725 70 54 2 
0.17452 0.0846159 2.04015 87 101 136 
-0.0659834 0.497703 0.98773 5 8 1 
-0.0639312 -0.269036 1.95975 42 41 23 
-0.248759 0.548151 1.01385 16 13 0 
-0.245952 0.121553 0.960085 57 40 12 
-0.415608 -0.0502147 1.40652 95 94 102 
-0.310483 0.334515 1.38649 19 23 32 
0.315799 0.342892 1.4132 13 12 17 
-0.243862 0.046136 1.1534 137 146 179 
0.176338 -0.0494631 1.17528 155 179 69 
-0.188128 -0.146851 1.18369 117 106 76 
-0.256142 -0.154765 1.6522 62 54 41 
-0.192306 0.0294848 1.18443 11 4 0 
-0.166477 -0.210159 1.15378 172 147 142 
-0.40451 -0.117578 1.54941 62 49 7 
0.0952153 -0.220053 1.84931 65 72 80 
0.040086 0.147026 0.872364 69 52 9 
-0.0262287 -0.164113 1.68493 181 194 238 
-0.69373 -0.0851567 1.44973 47 40 14 
-0.0228148 0.07912 2.04379 37 35 14 
-0.257632 0.0790477 1.06546 78 60 12 
0.149431 0.0296778 1.21727 68 50 4 
-0.0653906 0.00815608 1.18914 46 27 0 
-0.227426 -0.110399 1.53863 177 187 214 
-0.392257 -0.135254 1.45486 96 100 109 
0.175241 0.129519 0.972327 72 50 1 
0.398801 0.0669861 1.13105 33 22 2 
0.0280393 -0.0638491 1.44356 99 78 13 
-0.171986 0.12276 0.965396 99 106 116 
-0.523115 0.0032305 1.25249 60 45 4 
0.27454 -0.0222803 1.24003 81 95 7 
0.495745 -0.103621 1.57035 89 96 124 
-0.210357 0.107367 0.983691 71 50 3 
-0.301852 0.163461 0.983775 73 89 115 
-0.180442 -0.228281 1.15273 7 4 0 
0.36579 -0.153544 1.71113 12 7 3 
0.372719 0.0185193 1.25606 44 29 0 
0.0590107 0.142781 0.913723 80 62 14 
0.317485 0.358046 1.36031 8 8 10 
-0.374486 0.366358 1.30053 42 49 59 
-0.179855 -0.217194 1.13173 52 111 205 
0.00738642 0.474772 1.03722 3 3 1 
0.222827 -0.077099 1.46923 56 39 11 
0.433279 -0.0159145 1.35479 73 61 47 
0.230413 -0.0612722 1.45535 53 33 0 
0.0527734 0.167333 0.859268 102 102 112 
-0.195333 -0.118385 1.18515 87 82 44 
-0.0139215 0.00538719 1.26212 72 52 28 
0.154768 -0.122559 1.5978 66 44 3 
-0.193143 0.162226 0.844817 83 63 13 
-0.156997 -0.235675 1.62989 130 126 143 
0.00358296 -0.254018 1.9234 175 192 246 
0.177217 -0.233761 1.90583 236 248 246 
0.263749 -0.0176674 1.23737 129 141 0 
-0.0553591 -0.0175331 1.18121 177 177 189 
-0.164381 -0.171509 1.60431 95 78 35 
-0.50158 0.253827 1.57518 86 99 118 
0.229976 0.143727 2.04756 60 61 63 
-0.29054 0.438104 1.12787 16 18 17 
0.0709606 -0.126486 1.60691 52 41 21 
-0.282504 -0.210265 1.80234 44 39 20 
0.054691 0.176213 0.841094 61 49 27 
0.453019 0.360879 1.3437 12 12 10 
-0.296128 -0.0679543 1.43729 59 40 0 
-0.219077 -0.229565 1.55994 83 25 23 
-0.108399 0.197307 0.773158 79 78 74 
-0.458624 -0.0663865 1.44055 155 172 218 
0.662954 0.35624 1.55732 66 62 15 
0.608798 0.00119189 1.29865 90 70 20 
-0.658335 0.226057 1.63783 97 115 137 
0.402747 -0.0590928 1.44787 57 43 6 
0.222564 0.0987008 1.05056 84 67 23 
0.389597 0.0942339 1.09271 5 4 0 
-0.115175 -0.233199 1.85663 38 31 3 
-0.465208 -0.0505326 1.37739 141 162 181 
-0.525758 -0.0907992 1.47318 79 73 61 
0.171758 0.0142852 1.14992 66 62 0 
0.500825 -0.0570641 1.44585 83 63 13 
0.304339 0.293819 1.52416 33 36 41 
0.293323 -0.0504782 1.22167 84 99 6 
0.204254 0.00483334 1.28319 59 58 2 
0.106197 -0.246594 1.90777 131 141 176 
-0.114179 -0.111914 1.56434 57 43 8 
-0.0294415 0.0618876 2.09171 34 33 12 
-0.0201935 -0.0819435 1.06927 60 37 0 
0.118869 0.380867 1.2736 88 78 43 
-0.0433945 -0.212582 1.0204 37 42 38 
-0.624452 0.26996 1.51592 77 92 115 
0.320062 0.153675 2.03006 72 76 77 
0.314795 -0.152664 1.68232 72 50 1 
0.557601 0.343479 1.40847 31 27 18 
-0.332382 -0.197304 1.52686 118 81 10 
-0.0283625 -0.143764 1.12495 190 201 223 
-0.318153 0.130812 0.990874 6 7 2 
-0.341192 -0.0245734 1.32098 74 52 3 
0.0327362 0.4494 1.11112 3 3 3 
-0.169073 -0.112877 1.54906 218 229 247 
0.228997 -0.136904 1.44693 75 83 68 
-0.159854 -0.0770054 1.20391 138 102 88 
0.088111 0.137321 0.918628 68 47 0 
0.465783 0.030737 1.2413 57 48 33 
-0.279198 -0.144067 1.55956 147 139 74 
0.211157 -0.0678201 1.22661 137 142 75 
-0.345624 0.00241695 1.2689 127 134 162 
-0.314678 -0.130717 1.59677 63 50 18 
0.0575768 -0.177567 1.74927 134 109 68 
-0.208773 0.393289 1.24502 2 2 2 
0.204048 0.018896 1.15479 122 124 0 
-0.325102 0.0906887 1.02078 70 50 17 
-0.0855716 0.227099 0.754399 3 3 1 
0.183196 0.348523 1.37119 89 83 71 
-0.264248 0.033444 1.17888 65 50 9 
0.313767 -0.00911108 1.17816 118 139 2 
-0.544926 0.317484 1.43406 107 123 148 
0.270465 -0.0448325 1.2173 92 114 0 
-0.350422 -0.0652302 1.42404 55 35 0 
-0.2608 0.09335 1.02249 131 138 164 
-0.267372 0.158129 0.911499 15 10 0 
-0.0645131 -0.203146 1.78131 178 195 241 
0.00537376 -0.0540052 1.13638 175 157 169 
0.398962 0.319241 1.46263 25 25 27 
0.298107 0.148649 1.03995 2 2 2 
-0.188612 -0.0906665 1.13034 42 13 0 
-0.576205 -0.0714547 1.43432 61 50 20 
0.225873 -0.122844 1.59217 81 63 17 
0.029172 -0.0634917 1.43684 94 75 9 
0.243715 -0.155859 1.68933 56 51 31 
-0.620321 -0.0780363 1.41188 64 50 15 
-0.342987 -0.170275 1.45451 81 51 0 
0.031703 0.201699 0.831016 7 6 1 
0.244846 -0.191171 1.7865 77 82 101 
0.065945 -0.0366952 1.38228 70 52 6 
0.0341588 0.0388193 1.17449 102 84 22 
-0.298251 0.0455224 1.13998 63 47 11 
0.180895 -0.0130095 1.22144 113 142 23 
0.179184 -0.0223872 1.34173 73 53 20 
0.303719 -0.110648 1.58522 88 68 15 
-0.0253155 0.501733 0.983179 5 5 5 
-0.316452 0.118519 0.98707 6 6 4 
-0.00659057 0.461815 1.09095 3 8 2 
0.318909 -0.0487773 1.16632 167 178 50 
-0.66816 0.248097 1.58617 116 133 159 
-0.202161 -0.0909776 1.48961 76 54 13 
0.325903 -0.0646146 1.45326 85 64 7 
0.167784 0.373241 1.30543 91 81 56 
0.344551 0.3938 1.26344 5 6 1 
-0.0837327 0.0101176 1.25309 65 62 57 
0.106056 0.0960035 2.00332 103 121 159 
-0.204421 -0.0316789 1.33452 74 59 16 
0.192371 -0.0210837 1.10525 184 203 78 
0.320739 -0.038743 1.39052 68 47 0 
0.0106368 -0.205149 1.0365 49 7 0 
-0.317259 -0.171519 1.46059 180 158 0 
-0.0327047 -0.155349 1.03994 44 20 10 
-0.0290917 -0.214201 1.82218 67 49 9 
-0.431411 0.0406524 1.16019 66 47 7 
-0.191274 -0.242933 1.56139 135 120 81 
-0.723157 0.11719 1.53661 5 5 5 
0.463967 -0.0298738 1.36573 76 55 2 
-0.299723 -0.184316 1.462 186 169 29 
-0.0508239 -0.269517 1.92841 193 204 250 
0.32446 -0.094245 1.54921 83 62 9 
-0.584935 0.209287 1.68313 96 111 134 
0.282227 0.0239721 1.23467 13 10 1 
-0.329403 -0.173707 1.46307 153 127 6 
-0.162605 0.500834 0.953628 16 13 6 
-0.0438332 -0.0795306 1.14466 171 177 189 
-0.451002 0.380144 1.27185 64 75 67 
0.561989 -0.0214239 1.36403 78 61 15 
-0.119606 -0.187383 1.75143 50 42 19 
-0.63073 0.27665 1.51412 17 16 11 
0.126326 -0.24928 1.91898 64 47 19 
-0.692951 -0.096239 1.47996 37 26 8 
0.561455 0.304413 1.51205 38 28 3 
0.302149 0.00807951 1.1587 96 107 31 
0.235852 -0.0829303 1.50271 62 52 16 
-0.617358 -0.114733 1.50978 96 90 94 
0.374563 0.0370346 1.21246 40 29 0 
0.243468 -0.0912258 1.44101 44 47 0 
0.547628 -0.0419532 1.42144 76 81 100 
0.0131667 0.495385 1.00185 8 9 4 
-0.341243 -0.152694 1.46398 79 48 1 
-0.307277 -0.133459 1.46748 80 52 2 
-0.0658385 -0.162909 1.68249 78 58 7 
-0.0982141 0.0917791 1.04899 64 48 15 
0.137409 0.123096 0.974303 44 33 11 
-0.348889 -0.0748086 1.45524 32 19 2 
0.533503 0.0755606 1.2021 12 7 14 
-0.142656 -0.231637 1.85092 63 59 58 
0.109863 -0.01591 1.32289 65 44 0 
0.252221 -0.12765 1.62185 137 149 187 
-0.0950299 0.0175825 1.21489 34 18 2 
-0.405237 -0.12098 1.56377 39 28 0 
0.316553 -0.0262305 1.12733 180 198 88 
0.388362 0.035622 1.2206 82 61 16 
0.425125 -0.126684 1.60608 67 54 19 
0.467644 0.364649 1.33818 14 13 11 
0.240478 -0.129223 1.41772 70 35 5 
-0.162282 0.464618 1.04019 7 8 3 
-0.151998 -0.0711727 1.12592 86 61 0 
-0.210029 -0.0706452 1.16542 77 55 0 
0.0343853 -0.105682 1.54754 86 67 9 
-0.0643916 -0.157153 1.13235 232 236 247 
-0.215299 -0.208445 1.79782 33 30 23 
-0.388541 0.0648083 1.08191 66 51 12 
0.546713 0.292656 1.5481 38 34 35 
-0.0137496 -0.253436 1.90824 168 182 231 
0.24445 -0.138452 1.63491 61 42 0 
-0.187128 -0.220362 1.8381 41 34 15 
-0.0548774 -0.234975 1.09753 112 18 6 
-0.372141 0.40377 1.21344 24 29 35 
-0.139729 -0.150737 1.15586 204 212 225 
-0.124731 0.17552 0.812441 66 45 0 
-0.555781 0.321925 1.4084 108 124 147 
0.301167 -0.129843 1.63296 77 54 4 
0.00440314 -0.0525205 1.09894 109 91 41 
0.524682 -0.00217474 1.3152 38 26 2 
-0.695169 0.254512 1.5632 32 35 24 
-0.684473 -0.105885 1.50025 40 32 11 
-0.0340263 -0.240853 1.88147 201 220 253 
-0.208299 0.463057 1.06487 32 23 6 
-0.195396 -0.107369 1.12993 30 8 0 
-0.397478 -0.0671524 1.42538 83 63 13 
-0.224251 -0.21927 1.62127 206 219 253 
-0.293015 -0.203748 1.77452 77 81 93 
-0.0651326 -0.0782846 1.47281 75 58 15 
-0.349676 -0.0769209 1.44582 147 160 195 
0.00363417 -0.208098 1.81037 69 54 15 
0.00924364 -0.223982 1.06474 79 57 33 
0.254978 0.0664812 1.12215 43 39 28 
-0.360004 -0.153108 1.43869 97 75 77 
0.0719717 -0.0305986 1.34955 85 63 3 
-0.123135 -0.105385 1.17325 197 147 138 
0.252466 -0.220177 1.84757 146 167 210 
-0.101374 -0.252004 1.10346 106 85 66 
-0.0687734 0.0480061 1.13839 14 7 1 
-0.101355 -0.0471423 1.38048 58 38 1 
0.548026 0.295899 1.52376 39 33 33 
-0.186766 0.137443 0.915157 61 56 50 
0.19915 0.134448 0.954736 9 6 1 
-0.176648 -0.157942 1.66746 49 42 34 
0.298857 -0.105131 1.46683 78 66 18 
-0.100433 -0.134028 1.61473 58 44 7 
-0.0950303 -0.0717622 1.45701 120 121 139 
-0.690302 0.264692 1.5386 67 69 58 
0.607007 0.059981 1.2596 11 8 1 
0.266141 -0.0495755 1.22707 106 122 0 
-0.197865 -0.223509 1.11179 76 100 146 
0.177533 -0.134185 1.63171 171 182 228 
0.48634 0.00932024 1.28079 56 52 41 
-0.430679 -0.0986265 1.50834 59 41 1 
-0.158203 -0.264769 1.1173 65 36 20 
-0.459794 0.375476 1.27968 66 68 63 
-0.280396 0.376304 1.27549 19 22 31 
-0.231803 -0.175124 1.61021 78 67 22 
-0.168176 0.421088 1.17131 2 2 0 
0.102802 -0.185993 1.74406 195 212 255 
-0.402551 -0.111815 1.53708 39 27 3 
0.285988 -0.160962 1.46897 14 21 3 
0.0216308 -0.175389 1.07919 97 81 47 
0.110283 0.422261 1.20328 96 82 55 
0.399946 -0.0793789 1.49629 79 80 82 
-0.0582894 -0.0044196 1.10872 22 6 6 
0.163612 -0.00111181 1.16672 89 110 5 
-0.518109 -0.109826 1.53089 51 40 18 
0.685873 0.322914 1.64659 49 42 23 
0.275771 -0.147582 1.4166 51 58 17 
-0.469977 -0.113056 1.55034 43 31 9 
-0.0761003 0.0387795 1.13036 15 6 0 
-0.655874 0.277544 1.50798 67 70 49 
-0.605896 -0.0671912 1.40342 39 24 1 
-0.177246 0.0164551 1.17313 61 27 0 
0.397188 0.349135 1.39577 13 13 13 
-0.121808 0.162883 0.854394 77 59 13 
-0.732331 0.268268 1.70455 62 76 77 
0.00266382 -0.0984279 1.07352 96 83 31 
0.0595314 0.396762 1.24299 90 77 35 
-0.466131 0.284391 1.50933 86 97 117 
0.297049 -0.0333046 1.17977 128 155 0 
0.524817 0.00972289 1.28962 75 78 83 
-0.0806233 0.340034 0.816421 1 0 2 
0.25653 0.413949 1.22284 2 2 0 
-0.673923 0.254289 1.54808 16 13 6 
-0.154431 0.00831572 1.22266 38 7 2 
0.159796 0.0265373 1.2198 95 80 23 
-0.551003 0.206216 1.67638 19 20 14 
-0.419891 -0.0351602 1.34582 79 77 78 
-0.419699 -0.117589 1.56086 42 33 0 
-0.0528111 -0.000748748 1.27253 68 48 13 
-0.0675684 0.185574 0.807571 53 40 5 
0.264049 0.117073 1.0118 18 9 2 
0.190374 0.0125415 1.28029 233 226 234 
-0.0356405 -0.0690891 1.15326 214 221 240 
0.167592 -0.0369751 1.18434 115 142 27 
0.266423 -0.0182966 1.24595 87 77 5 
-0.100498 -0.163334 1.14344 232 236 247 
-0.315655 0.337281 1.37151 31 40 49 
0.199974 -0.102359 1.55379 72 50 3 
0.164523 -0.00962048 1.17559 98 126 5 
0.358936 -0.0196076 1.34556 82 75 65 
-0.429503 -0.100021 1.5159 100 118 132 
0.147725 0.00918147 1.274 55 54 0 
0.0772121 -0.230495 1.8819 43 42 22 
0.138752 0.141193 0.911473 76 61 22 
0.0842376 -0.175657 1.72399 64 42 1 
0.167314 0.0205045 1.16073 83 69 8 
-0.15359 0.111964 0.980538 77 58 16 
-0.365399 -0.00339219 1.25546 86 71 30 
-0.0348244 0.499983 0.972405 31 21 9 
-0.00450925 -0.0341487 1.11067 120 106 57 
-0.077967 -0.0712361 1.08808 15 4 0 
-0.0586764 0.21898 0.770514 7 6 1 
-0.401964 0.2876 1.4947 75 91 106 
-0.714783 0.168044 1.54324 3 3 0 
0.479238 0.368917 1.34553 22 19 10 
-0.469898 0.259309 1.57791 89 102 121 
-0.405832 0.0814209 1.09428 3 3 1 
-0.226869 0.112595 0.979513 71 52 12 
-0.0192672 -0.172842 1.0236 104 86 36 
-0.159658 -0.214362 1.60678 100 83 55 
0.0333012 -0.144747 1.63929 83 65 15 
-0.206667 0.525616 0.962462 17 19 8 
0.554821 -0.041513 1.42135 75 81 97 
-0.106453 -0.254183 1.9179 42 34 13 
0.0104758 -0.0207769 1.32724 77 56 3 
0.256956 -0.106255 1.43545 86 79 9 
-0.149129 -0.231455 1.13286 85 52 9 
0.086748 0.060468 2.05966 95 111 145 
-0.0106433 0.422736 1.1768 2 2 2 
-0.109532 0.403172 1.2235 2 2 2 
-0.69055 0.234234 1.61091 23 22 18 
0.221313 -0.193271 1.77806 108 114 136 
-0.48418 -0.0587611 1.40731 55 36 3 
0.082519 -0.250381 1.93276 64 49 6 
0.109555 0.456738 1.10973 2 2 2 
0.31592 0.410218 1.2366 4 4 2 
-0.21179 -0.139077 1.61016 219 231 245 
-0.082348 0.16954 0.8477 63 53 44 
-0.47209 -0.093764 1.49577 38 26 2 
-0.029149 -0.026591 1.33337 98 82 23 
0.334217 0.301405 1.498 25 27 26 
-0.177735 0.574459 0.942507 30 28 16 
-0.39237 -0.185255 1.71329 60 56 55 
-0.286682 -0.166291 1.47894 89 48 0 
0.140173 0.12432 1.94239 99 118 150 
0.0416984 0.0761699 1.07759 78 58 5 
0.367636 0.0179231 1.25814 102 83 15 
0.17172 -0.0283696 1.19647 95 110 5 
0.386346 0.127944 1.10321 41 40 20 
-0.05479 -0.197545 1.03379 8 5 36 
0.601475 0.33291 1.45903 37 26 4 
0.151146 -0.216987 1.83351 75 56 14 
-0.537747 0.329972 1.3768 70 82 94 
-0.577665 0.305239 1.44647 102 121 138 
0.0493117 -0.143666 1.6627 239 254 255 
0.0131497 0.00394198 1.16806 71 71 71 
-0.517441 -0.152479 1.63594 36 30 14 
0.244743 0.0686151 1.11209 42 30 8 
-0.171553 0.448925 1.0727 34 22 6 
0.263803 0.329074 1.4278 64 65 69 
0.250616 0.00537482 1.1031 55 44 0 
0.0191424 -0.187299 1.75033 59 40 0 
0.285827 -0.0722126 1.45184 11 6 2 
0.676888 0.074925 1.32929 3 5 0 
0.379474 -0.0737597 1.50769 131 129 29 
-0.149493 -0.0227793 1.21164 35 8 0 
0.521798 0.0176087 1.26075 31 20 2 
0.294741 -0.0388309 1.18941 124 146 0 
0.0951317 0.0854508 1.07319 35 22 5 
-0.147481 -0.15458 1.68208 202 214 252 
-0.170941 -0.206191 1.14568 115 91 113 
-0.186847 -0.0422183 1.18769 22 42 43 
-0.27678 -0.20313 1.78393 42 31 11 
-0.014813 -0.00586141 1.09363 42 16 0 
-0.0609512 -0.0699405 1.44517 67 48 5 
0.363468 -0.0971428 1.54808 132 145 179 
0.00155299 -0.104909 1.05957 49 37 37 
-0.156077 -0.247681 1.58528 151 126 70 
0.243337 -0.223992 1.8529 98 105 123 
-0.182155 -0.0110985 1.20578 92 102 127 
-0.513852 0.370754 1.33459 11 12 17 
-0.0543236 -0.205065 1.80301 45 39 15 
0.303442 -0.179853 1.43465 119 129 77 
-0.323209 0.0817927 1.02769 51 45 29 
-0.132794 0.496246 0.991838 38 27 9 
-0.0635385 0.0621794 2.10023 21 29 31 
-0.119051 0.0250787 1.15177 35 6 0 
-0.464215 0.0484039 1.14909 13 8 2 
-0.541083 -0.00368401 1.26435 57 41 5 
0.440643 0.00803197 1.28546 97 99 120 
0.111845 0.0480806 1.16423 60 42 4 
0.000918973 -0.133213 1.07793 108 98 39 
0.60541 0.00853511 1.29055 73 51 12 
-0.696619 0.264262 1.7072 76 85 100 
-0.346431 -0.06607 1.38729 82 62 11 
-0.292038 -0.0241295 1.32183 76 55 2 
0.173707 -0.0643611 1.45116 153 165 203 
-0.523959 0.356062 1.34564 9 9 0 
-0.53309 -0.144867 1.62312 33 31 19 
-0.375087 -0.00189337 1.24896 82 67 26 
0.258674 -0.188902 1.43993 250 255 248 
-0.468706 0.35105 1.33729 52 62 74 
0.241052 0.107601 1.9953 78 89 119 
-0.237746 0.132654 0.938155 146 159 191 
-0.72197 0.0805875 1.50965 0 3 6 
-0.219625 0.09283 1.03892 45 36 3 
-0.108 -0.107807 1.54056 56 42 5 
-0.0461949 -0.0329283 1.17483 119 113 141 
0.302194 -0.0189482 1.34442 52 38 0 
-0.114242 0.157871 0.87209 73 55 15 
-0.373238 -0.0598344 1.40368 81 60 7 
0.0851985 0.0919322 1.05829 60 41 0 
0.0620372 -0.135437 1.64105 78 72 110 
-0.398687 -0.145153 1.46386 73 53 18 
-0.465819 -0.075312 1.4644 153 170 216 
0.48473 -0.0781162 1.4941 38 27 0 
0.421545 -0.062188 1.46372 64 64 30 
-0.545799 0.0328418 1.26026 5 8 13 
0.15056 -0.119952 1.58509 71 49 2 
-0.048232 -0.218205 1.10115 96 48 34 
-0.140431 0.516876 0.92416 35 21 8 
-0.584076 0.289339 1.46844 70 83 100 
0.238004 0.0874815 1.07447 86 70 21 
0.193218 -0.0643578 1.20132 171 174 61 
0.371688 -0.0751237 1.49348 65 63 48 
0.497263 -0.0270652 1.38113 91 98 116 
-0.490003 0.247701 1.58851 89 101 123 
-0.0366329 0.0416795 1.115 48 22 0 
-0.301698 0.0585382 1.10573 73 60 18 
0.121008 0.00680616 1.26073 75 64 2 
0.493769 0.0928626 1.18009 3 3 5 
0.111067 -0.0969035 1.51854 90 71 13 
0.073042 0.387544 1.2254 52 50 35 
-0.29226 -0.0953729 1.484 36 14 1 
-0.496319 -0.0214347 1.3088 69 54 15 
0.41755 -0.111015 1.59146 101 106 128 
-0.225694 -0.140038 1.61099 34 16 2 
0.234528 -0.0998652 1.54818 94 74 15 
0.377744 -0.00700242 1.33105 101 82 16 
-0.0904424 -0.0444653 1.19131 158 119 138 
-0.0498617 0.0981524 1.02461 84 65 9 
-0.725545 -0.008404 1.4707 5 10 30 
-0.216247 -0.187331 1.64135 161 182 229 
0.0845234 -0.0799062 1.49192 68 48 0 
-0.378462 -0.120698 1.57114 79 65 20 
-0.0678909 -0.185155 1.11877 93 82 90 
-0.073997 -0.246773 1.91264 41 33 12 
0.201583 -0.000234281 1.29986 76 63 28 
-0.380745 0.329553 1.39668 68 75 93 
0.0913721 0.00296179 1.28118 72 52 1 
0.227217 -0.131524 1.61084 137 147 182 
-0.230316 -0.12341 1.58479 59 42 14 
-0.104959 -0.00835377 1.29956 90 94 105 
-0.0271245 0.118314 0.97877 51 35 2 
-0.423986 0.352753 1.3261 29 36 42 
-0.267678 0.131406 0.941597 74 52 15 
-0.051121 0.0792546 2.06311 30 29 9 
-0.332827 -0.0361625 1.34725 77 60 17 
-0.215345 -0.257644 1.59115 179 196 239 
-0.147338 0.00468266 1.27182 50 43 27 
-0.362232 -0.155166 1.52086 166 163 46 
-0.194844 -0.180976 1.65341 100 113 132 
0.0270491 -0.165169 1.6923 82 63 7 
0.309878 0.00323903 1.14845 56 55 0 
-0.389694 -0.170158 1.74447 47 48 50 
0.259203 -0.00397402 1.30806 86 70 10 
-0.191335 -0.230046 1.13635 89 105 156 
0.390785 -0.010702 1.33392 58 38 1 
-0.00549206 -0.147695 1.65435 76 57 17 
0.108137 -0.30649 2.02702 93 97 106 
0.0360719 -0.14675 1.64828 76 58 10 
0.295995 -0.168062 1.71581 139 158 201 
0.323606 -0.0313434 1.35339 72 50 0 
0.236026 0.0967391 1.04852 38 27 7 
-0.162657 -0.258392 1.10428 90 83 114 
0.105909 0.0597038 1.12407 53 38 0 
-0.478717 0.247699 1.58026 86 98 120 
0.0804935 -0.00511899 1.28943 83 70 53 
-0.0274099 0.0874442 1.05989 61 46 7 
0.334048 0.332672 1.42824 14 14 14 
-0.210255 -0.0256584 1.16896 75 56 13 
-0.662475 -0.0889773 1.44917 64 45 12 
0.0114279 -0.185431 1.08744 107 90 70 
-0.548295 -0.105022 1.5216 37 26 6 
-0.271318 0.017694 1.22217 70 49 2 
-0.718958 0.231631 1.5793 2 2 4 
0.103602 0.119939 0.979339 66 50 14 
-0.159146 -0.0772909 1.45733 84 72 60 
-0.511508 -0.152641 1.63998 27 24 9 
0.673634 0.170374 1.3761 3 1 2 
-0.274735 -0.0119175 1.29552 63 47 11 
-0.605929 -0.0808199 1.45549 49 42 23 
0.188543 0.359059 1.35162 93 88 69 
0.245414 -0.0234655 1.34302 86 66 7 
-0.154137 -0.229452 1.63162 93 87 121 
0.293595 0.0148468 1.21724 8 4 1 
0.353878 -0.122254 1.60362 56 50 38 
0.330402 0.366146 1.34083 9 9 7 
-0.0145837 -0.104531 1.12264 180 183 200 
0.259258 -0.122588 1.60082 60 45 4 
0.505253 -0.0625287 1.46973 88 94 108 
-0.354853 -0.13972 1.54818 144 144 32 
-0.282317 0.445434 1.0979 17 18 20 
-0.34505 -0.188585 1.55147 57 39 0 
-0.282706 0.389675 1.2549 6 8 7 
0.0045922 -0.102083 1.53057 131 135 162 
-0.34959 0.364913 1.31639 16 21 27 
-0.624103 -0.0466738 1.3792 223 233 243 
-0.206237 -0.179919 1.11377 6 5 10 
0.0135849 -0.119783 1.09256 124 109 52 
-0.705867 0.254403 1.57071 17 16 14 
0.159785 -0.0506869 1.18406 106 141 11 
-0.342771 -0.139688 1.62327 81 67 20 
0.0607464 0.368111 1.30405 79 66 32 
-0.371776 -0.0397686 1.35176 92 73 17 
0.00261812 -0.215429 1.03343 25 4 0 
-0.146234 0.181702 0.808551 48 37 15 
-0.26211 -0.109692 1.54013 63 46 0 
0.549863 -0.0630544 1.47873 87 98 116 
0.00194606 -9.2896e-06 1.16948 96 93 104 
0.100575 -0.244368 1.9172 69 52 8 
0.26839 0.0151493 1.13358 142 165 0 
-0.188068 -0.251332 1.56212 201 198 217 
-0.17306 -0.104934 1.53125 86 62 16 
0.200152 0.0885047 1.07026 73 54 14 
-0.508287 0.30275 1.4582 121 134 166 
-0.37321 0.371462 1.29495 39 46 54 
-0.214211 0.154527 0.881861 73 55 19 
0.255275 -0.0941235 1.43695 22 31 0 
0.476814 -0.028091 1.38607 40 26 0 
-0.0468064 -0.287786 1.9872 39 42 49 
-0.202408 0.0050535 1.25074 82 65 22 
0.154036 -0.208514 1.80868 157 178 231 
0.286991 -0.119245 1.4936 3 41 4 
-0.0223993 -0.208445 1.00972 13 12 17 
-0.1785 -0.0437032 1.20855 130 71 65 
0.138133 -0.108683 1.5465 96 91 88 
0.580402 0.0230268 1.2373 54 40 1 
-0.0993672 0.0193558 1.21829 56 47 30 
-0.108588 -0.143957 1.15257 191 185 233 
0.555727 -0.0270705 1.38245 81 86 106 
-0.169642 0.212637 0.824758 4 4 4 
0.0632088 -0.059411 1.43927 95 76 17 
0.0113686 0.420637 1.1937 2 2 2 
0.235225 -0.164631 1.72042 94 75 19 
-0.198743 -0.0383289 1.15691 49 28 0 
-0.42017 0.377351 1.2685 30 37 43 
-0.49132 0.321782 1.40834 129 144 173 
-0.292841 -0.1268 1.48233 110 70 11 
-0.642075 -0.0502034 1.3872 214 227 244 
-0.544216 -0.0231892 1.3287 69 43 0 
0.262834 0.336157 1.40169 103 95 84 
0.327878 0.152512 2.02731 90 92 87 
0.235338 0.0143461 1.11087 52 45 1 
-0.369199 -0.118269 1.51031 30 19 0 
-0.295925 -0.174379 1.52539 236 210 126 
0.0548571 -0.00476389 1.30284 67 58 29 
0.555204 -0.012099 1.33758 32 19 2 
-0.570318 0.384237 1.41825 46 46 34 
-0.184847 -0.262312 1.60359 184 164 111 
-0.0746242 0.0199714 1.20527 42 24 12 
-0.258923 0.417821 1.17499 9 10 12 
0.00356175 -0.209571 1.79629 184 198 247 
0.388799 0.103683 1.10272 9 8 6 
-0.209929 -0.166027 1.66646 49 53 62 
-0.432936 0.055755 1.10938 67 52 11 
0.0619299 -0.207291 1.80624 56 41 0 
-0.0656698 -0.165557 1.12405 214 220 234 
-0.355635 -0.0287922 1.33433 104 107 124 
0.313817 -0.0037783 1.31242 99 81 19 
-0.111071 -0.148666 1.64612 77 59 13 
0.298827 -0.148764 1.46882 21 37 11 
0.220796 -0.230739 1.86988 59 44 11 
-0.338129 0.0631725 1.10853 60 45 6 
0.295762 0.032113 1.21543 13 9 0 
-0.29552 0.112661 0.983119 64 46 6 
-0.175174 -0.226964 1.84409 45 37 1 
0.439945 -0.0699761 1.48305 117 124 150 
0.250582 -0.134054 1.62519 57 42 1 
-0.282194 0.107694 0.994818 53 40 6 
0.337556 0.0794837 1.09781 41 29 5 
0.385785 0.367986 1.32882 10 10 10 
-0.319968 -0.176559 1.7137 56 44 2 
-0.138268 -0.0621343 1.42914 81 72 67 
-0.297646 -0.157595 1.67172 62 49 14 
0.251906 0.427559 1.18761 3 3 3 
0.192634 -0.023443 1.1125 165 184 69 
-0.411359 0.0588104 1.11076 58 42 8 
0.272426 -0.092762 1.50399 13 15 2 
-0.15825 -0.183088 1.08588 17 6 4 
-0.0822147 0.283283 0.77807 2 2 2 
0.101728 0.429917 1.16176 3 0 7 
-0.0867051 -0.141873 1.13473 196 204 215 
0.209734 0.0224453 1.13632 39 40 0 
0.448474 -0.108832 1.55467 57 40 0 
0.262827 0.0666436 1.13532 39 23 0 
-0.367428 -0.183931 1.49068 111 98 2 
-0.203584 -0.109503 1.54534 77 56 11 
-0.171542 0.461437 1.04768 7 8 2 
-0.196614 0.0155167 1.20973 67 65 66 
-0.215852 0.435089 1.14291 5 5 5 
-0.215573 -0.155452 1.60135 90 78 36 
-0.239553 0.0883912 1.05027 75 57 7 
-0.217351 0.47339 1.04598 27 17 5 
-0.140522 0.468752 1.03216 37 26 6 
-0.192291 -0.159631 1.12722 96 83 75 
-0.000774115 -0.0871283 1.06401 57 46 26 
-0.339379 -0.103361 1.47884 59 37 0 
0.201691 0.381102 1.28623 93 83 58 
0.415845 -0.138193 1.67098 39 43 46 
-0.184444 -0.123374 1.19102 135 107 96 
-0.430362 0.0610748 1.10475 52 41 11 
-0.128881 -0.162583 1.15785 113 121 98 
0.572638 -0.0050165 1.35029 87 68 12 
0.437634 0.26406 1.59936 45 45 47 
-0.0548991 -0.220277 1.83262 63 51 11 
-0.333413 0.0668858 1.08203 83 65 25 
-0.341966 0.0746133 1.07309 72 55 12 
-0.221408 0.489738 1.01814 11 11 3 
-0.332887 -0.0632383 1.41723 65 44 0 
-0.342197 -0.163783 1.54442 183 178 48 
0.207339 -0.105502 1.56394 73 59 14 
0.586507 0.00427542 1.27368 78 67 22 
0.0311546 -0.073423 1.46923 94 77 7 
-0.308111 0.129372 0.963128 8 4 1 
0.022645 -0.177584 1.08515 144 133 139 
-0.0739704 0.0117611 1.19653 48 18 10 
-0.595008 -0.0898457 1.47156 74 69 73 
-0.278891 0.0968516 1.01895 74 52 11 
-0.150197 -0.0814345 1.11786 71 48 7 
0.274494 -0.189328 1.46469 39 80 36 
-0.373986 -0.00845632 1.27042 85 68 22 
-0.484395 -0.108821 1.52109 33 32 14 
-0.0465459 -0.0369342 1.36372 72 53 13 
0.26054 0.379644 1.3027 7 5 6 
0.318155 -0.0348289 1.14676 34 10 0 
0.222729 -0.0107094 1.24723 106 127 6 
-0.114497 -0.255882 1.09294 110 83 53 
0.104407 -0.209554 1.82078 61 46 5 
0.274654 0.054648 1.15239 6 5 0 
0.292303 -0.0621353 1.20835 89 100 0 
-0.214037 -0.130162 1.58643 240 249 254 
0.0344387 0.0119081 1.25727 65 47 1 
0.245333 -0.0392311 1.24118 101 130 12 
0.0103502 -0.170685 1.06954 120 104 45 
0.254637 -0.164603 1.70797 87 71 20 
0.28609 0.39958 1.2413 4 4 4 
-0.12031 -0.190294 1.7474 217 230 249 
-0.0285429 -0.0249435 1.16307 119 108 116 
-0.0471888 0.0617582 1.11996 16 5 0 
0.121075 0.070458 1.11468 62 43 0 
0.603129 0.298352 1.52853 46 39 21 
0.203514 0.100187 1.04095 71 49 8 
0.00793782 -0.171553 1.7217 73 57 8 
-0.178814 -0.268678 1.62983 43 36 18 
-0.477573 0.412563 1.3127 7 7 7 
0.18978 0.00247962 1.22146 104 135 18 
-0.0660861 -0.0265955 1.10267 70 11 0 
-0.452504 -0.0352628 1.34192 89 71 21 
0.292535 -0.0988503 1.48822 74 74 46 
-0.327158 -0.0249982 1.31468 84 67 24 
-0.252204 -0.0905093 1.49163 49 28 0 
-0.587634 -0.144667 1.58623 79 72 53 
0.107745 -0.0868215 1.51031 146 157 189 
-0.33157 -0.0432009 1.36664 82 61 8 
-0.704876 0.0726479 1.55687 1 0 0 
0.0554397 0.0904076 2.01694 105 125 160 
-0.341849 0.105 0.973003 59 44 3 
0.388403 0.0314491 1.22807 69 53 28 
0.21821 0.107004 1.01945 38 27 7 
-0.0816987 -0.170245 1.69347 205 219 246 
0.32246 0.0189822 1.25275 32 19 3 
-0.440439 -0.0215836 1.31938 62 52 40 
0.115728 0.0465699 2.24918 90 95 98 
0.598735 -0.0313043 1.3932 81 87 103 
-0.130014 0.149218 0.898603 52 43 12 
-0.0590657 0.0190195 1.23582 70 57 51 
-0.273004 -0.0183693 1.31156 53 34 2 
-0.197729 0.0901203 1.03634 77 58 18 
-0.325825 0.348657 1.34625 31 40 47 
0.286334 0.104366 1.03618 56 46 21 
-0.0647288 -0.258856 1.94533 52 45 37 
-0.0465035 -0.175535 1.72206 49 43 29 
0.012433 -0.200303 1.04581 96 82 35 
0.0364642 -0.193149 1.77218 70 70 72 
-0.00833618 -0.214606 1.01537 63 62 93 
-0.183899 0.144091 0.902014 65 46 4 
0.249407 -0.202341 1.79884 57 43 6 
0.241947 0.41634 1.20955 3 3 3 
0.171573 -0.204711 1.8033 54 39 0 
-0.380884 0.103751 1.06145 8 4 3 
-0.193261 -0.0279399 1.16153 56 33 17 
-0.263717 -0.191147 1.48029 127 85 1 
-0.0336361 0.0772252 1.07993 56 38 0 
-0.219118 0.435183 1.07243 25 21 9 
-0.0225822 0.222156 0.793268 6 1 8 
-0.0338101 0.0319705 1.18474 48 22 7 
-0.632461 -0.0357335 1.3521 85 84 36 
-0.0515983 -0.269413 1.95024 179 202 252 
0.207683 0.0155288 1.14322 130 143 1 
-0.0197203 0.474416 1.03389 3 3 1 
0.476942 -0.0307866 1.39339 25 22 0 
-0.437399 -0.0423536 1.36577 56 40 6 
-0.363122 -0.186489 1.48731 108 100 25 
0.322168 -0.173883 1.76911 6 7 2 
0.0623053 0.0501919 2.11891 90 106 140 
-0.300634 -0.16243 1.46993 138 115 0 
0.205732 0.0170013 1.173 126 134 0 
-0.0552989 0.159101 0.876231 64 49 8 
0.0183122 0.0882214 1.05622 59 41 1 
-0.334997 0.0722179 1.08436 134 149 168 
-0.572694 0.231593 1.62568 90 106 122 
0.234953 0.00378867 1.28376 96 94 97 
0.225542 -0.0585627 1.43326 58 49 40 
0.223551 -0.0788018 1.47781 44 31 0 
-0.262493 0.154797 0.908522 11 6 2 
-0.0636837 0.150335 0.886139 83 62 17 
0.446537 0.342136 1.4166 19 16 7 
0.090596 0.19521 0.882867 5 5 7 
0.0584005 -0.0826816 1.48419 64 46 6 
-0.372115 0.0279768 1.17725 85 69 18 
0.269413 -0.0676655 1.45476 10 8 13 
-0.0846229 0.0740984 2.04456 24 22 9 
0.499921 0.334781 1.42769 25 22 17 
-0.104456 -0.158985 1.15545 157 171 198 
0.666691 0.262949 1.43793 97 90 71 
-0.209427 -0.0756097 1.44957 74 57 14 
-0.579706 0.26787 1.52858 150 166 199 
-0.0175487 -0.00817287 1.29565 97 79 15 
0.14308 0.0780879 1.09141 80 79 75 
-0.465033 0.0684766 1.15682 11 16 19 
-0.11106 -0.245825 1.87079 185 199 246 
-0.299455 -0.0920121 1.49111 36 17 2 
-0.199714 -0.20628 1.56617 72 47 7 
-0.0882194 -0.108942 1.55121 78 70 57 
-0.389429 -0.144843 1.62809 54 45 14 
-0.357611 -0.170038 1.75673 18 20 19 
0.122541 -0.183065 1.76094 76 61 28 
0.642536 -0.0366327 1.37781 7 0 0 
0.501551 0.00594199 1.29374 74 83 90 
0.257092 -0.111074 1.57081 64 49 10 
0.0353495 0.152823 0.903236 68 51 8 
-0.347441 -0.0981848 1.49494 12 9 0 
-0.117884 0.058036 1.12171 76 54 7 
-0.391292 0.0518358 1.1183 49 40 25 
-0.18347 -0.0944056 1.2032 94 84 93 
-0.0569582 0.144366 0.92465 69 51 13 
0.381713 0.0047757 1.29846 94 76 14 
-0.205829 -0.0367812 1.20294 67 49 13 
0.0113296 -0.0670895 1.10931 121 101 48 
-0.272682 -0.115311 1.50567 108 73 5 
0.100501 0.0448979 2.11939 85 100 131 
-0.235609 -0.0743673 1.45865 72 53 11 
-0.0368042 -0.214858 1.83114 46 36 24 
0.20516 0.072837 1.10235 50 40 28 
-0.168719 0.497266 0.9893 17 14 7 
0.143553 0.125367 0.969268 64 48 12 
-0.259151 -0.0929398 1.50658 62 43 3 
0.675698 0.168733 1.38432 1 1 3 
0.320428 -0.0942302 1.53104 50 44 18 
-0.0807976 -0.20901 1.03955 78 75 34 
0.227162 -0.146164 1.44917 42 65 36 
-0.288547 0.093224 1.01746 63 45 5 
-0.181942 0.57416 0.947077 8 7 3 
0.532762 -0.0540226 1.43956 39 28 0 
0.508563 -0.080555 1.48958 68 50 0 
0.419824 -0.0858148 1.52466 137 149 187 
-0.107298 -0.20117 1.119 77 45 4 
-0.105784 -0.043623 1.18615 124 89 93 
-0.034645 -0.0637585 1.43077 73 55 17 
-0.583574 -0.0571246 1.38143 60 46 11 
-0.216446 0.00888713 1.2337 65 45 8 
0.00253581 -0.0198603 1.14857 70 40 4 
0.292246 -0.0920203 1.53347 134 146 186 
-0.284403 -0.15657 1.52409 125 98 7 
0.187965 -0.0850614 1.50332 67 52 9 
0.0769357 0.138195 0.915625 65 44 0 
-0.335988 -0.159302 1.46897 122 91 0 
0.202676 -0.182719 1.76476 84 92 111 
-0.143807 0.189974 0.789276 37 32 13 
0.00871842 -0.0883314 1.09891 104 89 48 
-0.171472 -0.129648 1.1739 105 100 81 
-0.113449 -0.00119466 1.19886 78 55 24 
-0.397111 0.448201 1.2192 6 6 4 
-0.120373 0.50849 0.945226 44 32 8 
0.404208 -0.133203 1.64518 63 49 4 
-0.302434 -0.0479967 1.38262 74 50 2 
0.290198 -0.204451 1.80902 109 114 136 
0.24253 0.0364869 1.1268 38 33 1 
0.31887 0.370885 1.33814 7 7 7 
-0.064096 0.508959 0.957008 10 9 4 
-0.195934 0.0856434 1.05907 40 27 8 
-0.40503 0.0884538 1.09566 3 3 1 
0.415233 -0.076436 1.49893 53 33 0 
-0.417247 0.365458 1.30983 55 64 79 
-0.108876 0.184038 0.794329 77 58 16 
-0.284022 0.42984 1.15238 12 12 12 
0.00191643 0.475279 1.01888 7 7 5 
-0.152832 0.0564888 1.11968 80 59 14 
-0.208066 -0.211716 1.64547 131 132 160 
0.0515716 -0.219424 1.85003 42 45 28 
-0.178651 -0.0158285 1.31671 96 95 109 
0.274843 -0.0847737 1.51408 43 42 21 
0.108786 0.131339 0.929688 70 50 0 
-0.167979 -0.234579 1.64299 41 31 19 
-0.0618143 -0.146067 1.13317 230 237 245 
-0.348002 -0.120541 1.57935 41 39 24 
0.519679 -0.0838322 1.50976 74 52 5 
-0.229743 -0.195067 1.59775 136 132 146 
0.045092 0.139557 0.937837 35 23 7 
0.570352 -0.0433455 1.41237 37 22 1 
-0.345919 0.00274771 1.25973 74 53 10 
0.272647 -0.108531 1.56509 62 47 14 
-0.177538 -0.19094 1.75799 59 44 3 
0.275794 -0.0634373 1.22554 105 127 3 
0.236123 -0.0947716 1.53925 62 45 1 
-0.251455 0.434076 1.1278 9 9 1 
0.146927 -0.00139163 1.27645 79 59 6 
-0.0186571 -0.0515126 1.40747 88 69 13 
0.307876 -0.0704383 1.21653 179 196 126 
-0.182686 -0.186043 1.15139 137 143 179 
-0.0367405 -0.00601632 1.17493 64 47 31 
-0.0952456 0.424511 1.16236 2 2 2 
0.224743 -0.149284 1.46398 3 46 1 
-0.228819 0.465477 1.05734 30 21 6 
-0.528003 -0.0228516 1.30579 73 57 23 
-0.35525 0.0796546 1.06861 54 39 10 
-0.475925 -0.105887 1.5403 44 37 11 
-0.10293 -0.192587 1.13093 65 48 92 
-0.0039203 -0.195378 1.76471 163 182 225 
-0.0777737 -0.233664 1.05769 148 117 62 
0.307871 -0.0326683 1.1565 143 181 0 
-0.27083 -0.128936 1.60628 250 251 253 
0.0167592 -0.0478019 1.12849 122 104 64 
0.0152575 -0.184166 1.08015 41 18 0 
0.296677 0.109437 1.02277 54 40 3 
-0.443875 0.403874 1.25261 8 8 8 
0.0525455 0.0382538 1.18092 95 78 22 
-0.0182727 -0.266554 1.94158 147 159 207 
0.259847 0.0587914 1.1451 6 7 1 
0.133318 0.09108 2.01895 94 112 148 
-0.0736031 -0.234672 1.09643 110 23 3 
-0.0473376 -0.235699 1.87981 91 100 129 
0.127942 -0.173689 1.72734 66 43 1 
-0.251977 -0.215926 1.81976 43 35 16 
-0.149977 -0.267824 1.59921 227 227 235 
-0.138836 -0.213282 1.82116 32 30 15 
-0.109141 -0.0223602 1.2058 110 79 74 
0.48615 -0.0949941 1.54552 93 104 126 
0.0138668 0.00104924 1.1356 103 87 35 
0.217565 -0.0258819 1.22563 118 129 7 
-0.130358 -0.0376327 1.19949 73 15 11 
0.354803 0.312405 1.48947 21 21 19 
-0.0550896 -0.196279 1.77912 79 61 11 
0.135413 -0.0998623 1.52657 165 180 223 
-0.272269 -0.0394457 1.37768 114 120 146 
-0.37555 -0.156029 1.48246 158 178 229 
-0.435981 -0.160285 1.66963 49 41 20 
-0.143887 -0.0299326 1.35871 124 131 159 
0.290345 -0.107686 1.50759 47 47 13 
-0.168349 0.52759 0.903237 11 8 1 
-0.275675 -0.199883 1.52959 164 146 20 
-0.195408 0.388732 1.24256 2 2 2 
-0.465113 0.302239 1.45693 63 79 92 
-0.641465 0.258818 1.73335 75 89 90 
-0.111936 0.258805 0.761099 4 4 2 
0.184263 -0.0520149 1.17625 121 127 3 
0.156107 -0.100809 1.53244 74 80 36 
0.14171 -0.205594 1.80413 162 183 238 
-0.145592 -0.0059617 1.28641 74 54 1 
0.178394 0.0785561 1.09992 52 36 0 
-0.0881585 0.511155 0.932992 32 24 5 
-0.45341 0.011848 1.22959 61 43 3 
-0.339403 -0.214195 1.53162 153 143 19 
-0.0458851 0.0875935 1.05852 30 17 1 
0.306152 -0.172934 1.74577 81 93 119 
0.159552 -0.0389325 1.15823 85 108 0 
-0.0116611 0.00475308 1.16677 137 128 99 
0.0940016 -0.240666 1.89429 127 134 162 
-0.411055 0.0179757 1.20434 69 50 8 
0.236491 0.0305077 1.11745 38 27 0 
-0.35268 0.313982 1.41775 58 65 81 
0.173628 0.0508821 1.16094 43 30 0 
-0.120209 0.0883539 1.05506 36 24 0 
0.156894 -0.0727503 1.47631 93 74 16 
-0.33817 -0.2037 1.51048 163 112 5 
0.115595 -0.261261 1.9409 157 177 230 
-0.64999 0.275335 1.53255 139 159 184 
0.202453 0.167269 0.96045 6 6 6 
0.0054541 -2.90732e-05 1.29532 48 47 1 
-0.0933802 0.204157 0.747372 50 45 13 
0.198173 -0.0242626 1.21369 110 122 0 
-0.44311 0.386989 1.25655 37 39 28 
0.152046 0.397037 1.24502 71 63 24 
-0.0116979 0.469224 1.0704 5 5 3 
-0.344677 -0.0223824 1.31366 50 41 8 
-0.475301 -0.0991576 1.50451 40 28 6 
0.0207741 -0.207038 1.78726 180 193 238 
0.00328318 0.00421038 1.27213 61 46 13 
0.158302 -0.174761 1.72911 75 57 11 
-0.0928909 -0.184129 1.74493 60 55 61 
-0.0107164 0.469958 1.06241 4 4 2 
-0.15533 -0.0837482 1.48571 76 55 2 
-0.245026 0.110795 0.990109 73 55 15 
-0.222703 -0.24202 1.57719 134 133 131 
0.255127 -0.227913 1.88067 101 106 125 
0.146676 -0.241189 1.89556 154 174 227 
-0.261395 -0.197862 1.77548 38 36 24 
0.383059 -0.0957494 1.55382 155 170 209 
-0.16468 -0.245108 1.62442 77 77 77 
0.0904447 -0.0842846 1.49022 98 80 14 
0.0870727 -0.015513 1.31605 84 63 6 
-0.417023 -0.0309446 1.33446 71 55 21 
-0.392816 0.312425 1.42855 45 54 69 
0.306368 -0.0197374 1.15094 164 169 67 
0.175888 -0.00916503 1.1719 112 128 53 
0.010099 0.0264924 1.16282 84 63 10 
-0.125467 -0.232313 1.12069 54 18 6 
0.104219 0.0502849 2.13462 90 106 139 
-0.0505982 0.452426 1.1029 2 2 2 
0.314577 -0.115577 1.59752 154 168 213 
-0.0732102 -0.0802239 1.08126 34 12 1 
0.668011 0.0946989 1.3437 2 2 2 
0.298198 -0.143136 1.45874 25 27 3 
0.116494 0.357479 1.33126 87 77 50 
-0.224525 -0.204603 1.79524 47 39 20 
-0.371104 -0.0836978 1.46657 66 48 0 
-0.280524 0.124185 0.939815 73 51 10 
-0.25246 -0.146136 1.53986 236 241 235 
0.613257 0.317203 1.45872 35 33 21 
-0.171937 -0.0827921 1.21089 90 50 25 
0.188535 -0.0119212 1.12691 61 71 0 
0.129729 0.19143 0.915632 0 0 0 
-0.351459 -0.151996 1.55708 113 107 19 
0.231247 -0.0980927 1.4399 53 69 24 
-0.384742 0.356081 1.3363 52 59 75 
-0.107595 -0.0549311 1.39897 59 37 0 
-0.115431 -0.0353904 1.12175 91 70 25 
-0.0203176 -0.230415 1.85984 70 65 61 
0.352269 0.367555 1.3461 9 9 9 
-0.586317 -0.121646 1.56191 94 100 122 
-0.20311 -0.0878847 1.16688 51 37 0 
-0.294719 0.00210375 1.26548 125 140 161 
0.384518 0.265288 1.5649 44 45 47 
0.0912711 -0.118781 1.59455 84 64 14 
-0.113823 0.151198 0.8919 61 51 39 
0.0716071 0.0228077 1.21167 59 46 1 
-0.121392 0.460233 1.07331 3 3 1 
0.00360812 -0.180151 1.09265 123 109 100 
-0.01612 -0.204687 1.79764 54 39 0 
0.285735 -0.0691108 1.22492 104 125 4 
-0.281645 0.374544 1.28104 8 9 11 
-0.444403 0.0424438 1.13804 70 51 18 
-0.206221 -0.177361 1.58402 66 44 5 
0.503691 -0.0557337 1.45053 111 123 149 
-0.584806 -0.0851804 1.44637 227 241 250 
0.303492 -0.173211 1.42897 49 47 26 
-0.157254 -0.214459 1.59745 78 62 13 
0.565323 0.006018 1.30526 78 60 12 
-0.087073 -0.152915 1.65916 72 57 28 
-0.236599 -0.0716217 1.45352 169 180 234 
-0.375207 -0.0317532 1.34752 111 123 147 
0.105018 0.00707771 1.27313 79 63 40 
-0.0695741 -0.20289 1.11177 105 50 0 
0.609025 -0.00600076 1.31774 63 45 7 
0.317029 0.0575485 1.14845 48 35 1 
-0.107951 -0.178181 1.06414 83 63 28 
-0.472157 0.318018 1.42921 56 68 80 
-0.114074 0.202537 0.764763 75 51 13 
-0.428899 0.0435164 1.14262 89 99 101 
-0.122842 -0.246453 1.89316 212 227 246 
-0.447927 -0.174453 1.67363 36 33 14 
-0.0818059 0.0356109 1.14091 19 4 1 
-0.0860737 -0.163442 1.12868 210 216 232 
-0.436908 0.346811 1.36645 61 70 87 
0.440374 -0.0470412 1.4258 98 102 127 
-0.182009 -0.226152 1.12465 82 108 105 
-0.0506222 -0.169296 1.70339 50 44 28 
-0.244267 -0.16252 1.67594 52 43 14 
-0.461945 0.322448 1.41014 52 60 71 
-0.0917544 0.15111 0.889594 76 57 17 
-0.533809 -0.0257483 1.32354 58 42 6 
-0.135375 -0.254402 1.8897 77 71 83 
-0.15143 -0.13522 1.61878 65 46 4 
-0.190358 -0.243103 1.08301 65 91 168 
-0.389711 -0.0417902 1.35566 140 151 183 
0.185007 0.150637 0.947578 4 4 2 
-0.402217 -0.0190756 1.29856 90 73 29 
-0.113408 0.226428 0.747773 8 9 4 
0.542441 -0.0601771 1.47268 77 56 11 
-0.130203 0.472896 1.01133 13 10 3 
-0.380501 -0.0414777 1.36002 70 47 3 
0.554259 0.0305675 1.23007 75 57 19 
-0.049671 -0.25594 1.93138 41 33 10 
-0.481505 -0.155961 1.65143 45 37 18 
-0.494872 -0.0496577 1.3865 47 37 1 
0.459053 0.0449661 1.19704 43 36 8 
0.168943 0.0236418 1.16459 56 42 3 
-0.0789182 -0.185354 1.12814 208 203 225 
-0.147414 -0.244379 1.89922 31 28 19 
-0.314797 0.100194 0.991298 72 53 11 
-0.0351105 -0.138747 1.12739 218 226 239 
0.219783 -0.133719 1.46661 19 76 69 
-0.50711 0.356353 1.33642 109 112 119 
0.290905 0.311683 1.48617 23 23 25 
0.142864 0.062872 1.11844 54 38 2 
0.196397 -0.208 1.81561 109 120 142 
0.0367693 0.425624 1.16866 2 2 2 
-0.334435 -0.199299 1.52176 151 106 0 
-0.446751 -0.172927 1.68528 43 38 19 
